1167

-0.834000 -11.979127 -3.612596 4.902372
0.417000 -12.198914 -3.355767 4.026227
0.417000 -12.744810 -3.375326 5.452054
-0.834000 -9.902591 -9.416645 9.807464
0.417000 -10.866932 -9.143909 9.586747
0.417000 -9.895598 -10.361639 9.601062
-0.834000 -11.177039 2.989063 1.913611
0.417000 -10.313833 3.289342 2.298912
0.417000 -11.075582 2.057037 1.965445
-0.834000 -12.510829 2.391513 -9.653432
0.417000 -12.282631 3.281715 -9.334142
-0.834000 -10.066313 -6.371693 7.160495
0.417000 -9.649448 -5.896781 7.882333
0.417000 -10.999095 -6.202337 7.407804
-0.834000 -7.609925 3.405748 0.203303
0.417000 -7.270975 4.049745 -0.390311
0.417000 -8.171433 2.892243 -0.392264
-0.834000 -12.885460 -5.402891 -1.066219
0.417000 -13.739422 -5.887995 -1.137254
0.417000 -13.044805 -4.386592 -1.174388
-0.834000 3.706913 2.653834 0.558593
0.417000 3.784570 2.918125 -0.366700
0.417000 3.867277 1.732429 0.426637
-0.834000 -16.160066 -7.758916 3.453859
0.417000 -15.926013 -7.462955 2.544819
0.417000 -15.304836 -7.928107 3.800763
-0.834000 -6.068382 -4.504354 4.634105
0.417000 -5.424465 -4.390470 5.308090
0.417000 -6.691148 -5.062949 5.149402
-0.834000 -11.267998 7.871051 -0.355607
0.417000 -10.640585 7.266683 0.113219
0.417000 -10.691947 8.449584 -0.943426
-0.834000 -2.189314 6.787666 3.291467
0.417000 -2.706638 7.341062 3.898290
0.417000 -2.878830 6.272869 2.898525
-0.834000 -11.917277 9.605990 2.162501
0.417000 -11.821032 8.909180 1.539875
0.417000 -11.291746 10.302171 1.794711
-0.834000 -5.550421 -6.490453 -8.796231
0.417000 -4.907486 -5.785503 -9.157480
0.417000 -5.526968 -6.309007 -7.850765
-0.834000 -13.050381 7.633109 4.683422
0.417000 -12.411015 7.056562 4.270346
0.417000 -12.777173 8.536152 4.417554
-0.834000 7.087764 -7.583606 -7.951925
0.417000 6.053037 -7.735719 -8.018218
0.417000 7.440716 -8.309646 -8.446375
-0.834000 -5.887680 -9.325879 -9.388068
0.417000 -5.869641 -9.623149 -8.481025
0.417000 -5.702301 -8.331332 -9.349432
-0.834000 -8.121058 -9.183562 7.892173
0.417000 -8.503227 -9.986102 7.620010
0.417000 -8.444997 -9.011429 8.773404
-0.834000 -12.401809 3.854218 -3.761070
0.417000 -13.190658 4.150323 -3.272011
0.417000 -12.214382 4.602927 -4.302904
-0.834000 -7.997080 -1.103766 -5.993255
0.417000 -8.173486 -1.701775 -5.288807
0.417000 -7.991729 -1.764645 -6.733109
0.417000 -12.877292 5.520322 -8.459177
-0.834000 -3.615905 4.694454 6.641379
0.417000 -3.174337 5.410966 6.972690
0.417000 -3.034196 4.371636 5.879652
-0.834000 -0.051429 -6.281058 -8.503793
0.417000 -0.584134 -6.003415 -9.249679
0.417000 0.668942 -6.849275 -8.859449
-0.834000 -1.954751 -12.157936 -5.928021
0.417000 -2.134829 -11.230140 -5.814828
0.417000 -2.826459 -12.490084 -5.644752
0.417000 -5.015446 -12.068379 -8.420953
-0.834000 -10.639145 -6.381724 -2.573905
0.417000 -10.176969 -6.499365 -1.736594
0.417000 -11.491075 -6.020656 -2.275658
-0.834000 -12.654450 -9.704017 -1.956426
0.417000 -13.196232 -9.109669 -2.491384
0.417000 -12.673983 -10.563491 -2.514579
-0.834000 -12.647259 -6.494462 8.112527
0.417000 -13.102389 -6.329939 8.930321
0.417000 -13.208195 -6.196562 7.414281
-0.834000 -13.105779 -3.226265 2.496556
0.417000 -12.557891 -2.594258 2.029371
0.417000 -12.710746 -4.082714 2.238030
-0.834000 -13.454492 -8.266812 4.356402
0.417000 -13.085678 -7.370272 4.032928
0.417000 -12.655203 -8.636195 4.889934
-0.834000 -10.634942 8.714295 -7.918994
0.417000 -9.942035 8.399904 -7.271857
0.417000 -11.237515 7.963176 -8.032805
0.417000 -12.611590 -8.180245 8.734776
-0.834000 -2.521468 -3.526975 9.762915
0.417000 -3.172388 -4.273593 9.785007
0.417000 -1.929762 -3.778036 9.041530
-0.834000 10.102389 2.071362 5.121608
0.417000 10.624283 2.583088 5.821289
0.417000 9.688054 2.811653 4.629316
-0.834000 -10.675860 0.685772 7.612964
0.417000 -10.954935 1.532614 7.878781
0.417000 -10.291376 1.061063 6.742321
-0.834000 6.954385 3.480164 5.824652
0.417000 5.999344 3.348177 5.808379
0.417000 7.343134 2.648614 6.185255
-0.834000 -12.191103 -0.132754 -5.710589
0.417000 -11.358494 -0.237772 -6.145909
0.417000 -12.689008 0.376271 -6.382242
-0.834000 9.488646 -4.063741 8.443901
0.417000 8.715176 -3.659112 8.917202
0.417000 10.107728 -3.315109 8.368691
-0.834000 -11.764696 -0.589749 -3.110879
0.417000 -11.846327 -0.413304 -4.048380
0.417000 -12.199633 0.218815 -2.741328
-0.834000 -6.221505 -7.084092 7.521880
0.417000 -6.880906 -6.477682 7.967593
0.417000 -6.594050 -7.987625 7.703096
-0.834000 -6.390826 7.457456 -7.512831
0.417000 -6.450932 8.206150 -8.105783
0.417000 -7.081095 6.814788 -7.848003
-0.834000 -13.717263 -3.355674 -7.642229
0.417000 -13.909016 -2.879618 -6.862136
0.417000 -13.206885 -4.084091 -7.237514
-0.834000 -14.246439 -7.645822 -3.132978
0.417000 -15.048132 -7.588082 -3.602040
0.417000 -13.736516 -7.005605 -3.607891
-0.834000 -9.982508 5.216719 5.575740
0.417000 -9.140688 5.655504 5.344086
0.417000 -10.561765 5.384667 4.805331
-0.834000 -0.237660 8.980596 -7.349430
0.417000 -0.230103 9.450395 -6.467909
0.417000 0.673376 8.745448 -7.446015
-0.834000 -2.646127 8.659719 -8.819078
0.417000 -1.892170 9.158427 -8.424439
-0.834000 -8.001708 10.659025 -3.786380
0.417000 -7.213815 10.621260 -3.234933
0.417000 -8.087434 11.538828 -4.172399
-0.834000 -5.239880 0.683592 -4.950415
0.417000 -6.061084 0.455699 -4.569072
0.417000 -5.191363 0.007641 -5.625499
-0.834000 5.937714 8.792358 6.934245
0.417000 6.274287 9.123129 7.793023
0.417000 5.920870 7.844448 7.163474
-0.834000 1.162424 3.535312 9.981260
0.417000 0.626428 3.235349 9.197424
0.417000 0.439683 3.878015 10.546171
-0.834000 -14.721138 -10.996007 -0.522539
0.417000 -13.970525 -10.518191 -0.885319
-0.834000 -11.229765 -9.173498 5.761654
0.417000 -11.065209 -8.575176 6.510466
0.417000 -10.737326 -9.932475 6.018067
-0.834000 -5.072849 -7.230776 5.009702
0.417000 -5.452571 -7.003844 5.843221
0.417000 -5.160100 -6.429997 4.497616
-0.834000 10.070598 -2.050305 -9.892014
0.417000 10.351262 -2.226703 -8.933626
0.417000 10.040102 -1.100801 -9.809850
-0.834000 -0.479432 4.312474 -4.255799
0.417000 -1.238395 4.725466 -4.695081
0.417000 -0.826036 4.309529 -3.377728
-0.834000 -10.311476 -12.336884 1.751361
0.417000 -11.236035 -11.995852 1.575791
0.417000 -10.551352 -12.826444 2.589591
-0.834000 0.775526 -8.407382 -4.590147
0.417000 1.471051 -7.697901 -4.742895
0.417000 1.193263 -8.966688 -5.270174
-0.834000 -12.067595 -5.817425 1.661487
0.417000 -12.082877 -5.856866 0.685605
0.417000 -12.969965 -6.206964 1.892321
-0.834000 -3.796659 -4.238200 -8.839467
0.417000 -3.212289 -4.047944 -9.613762
0.417000 -3.669632 -3.423359 -8.338645
-0.834000 -4.822032 -4.769412 -2.357355
0.417000 -5.183493 -5.249494 -3.114614
0.417000 -3.845158 -5.097545 -2.311445
0.417000 -15.094543 -10.305052 3.589292
0.417000 -14.604900 -9.519091 4.661986
-0.834000 -0.042146 -1.615847 5.261181
0.417000 -0.830048 -1.268507 4.757288
0.417000 -0.430155 -2.309063 5.785652
-0.834000 -13.711146 -2.260204 6.743913
0.417000 -14.479503 -2.526240 7.303003
0.417000 -13.915537 -1.248934 6.553788
-0.834000 -7.696304 0.106663 6.612397
0.417000 -8.586354 -0.160127 6.555303
0.417000 -7.265866 -0.780023 6.492758
-0.834000 2.499307 1.189331 -6.517043
0.417000 2.768851 1.435342 -7.361986
0.417000 3.395429 0.964805 -6.231214
-0.834000 -2.138229 -11.554238 -2.458583
0.417000 -1.625227 -12.072077 -3.111913
0.417000 -2.348873 -10.742476 -2.942521
-0.834000 -3.267373 -9.060150 -3.368627
0.417000 -3.819229 -8.483562 -2.766466
0.417000 -2.350375 -8.747298 -3.061632
-0.834000 -1.131508 5.810292 5.676044
0.417000 -1.563083 6.047976 4.807270
0.417000 -0.281948 6.333062 5.591294
-0.834000 -5.389077 -0.379058 3.573542
0.417000 -5.194883 -0.091421 4.491279
0.417000 -6.273237 -0.671610 3.689316
-0.834000 -0.278081 3.931164 0.553530
0.417000 0.529785 4.091689 0.078691
0.417000 -0.643861 3.123800 0.072555
-0.834000 -1.987164 -12.431520 8.020068
0.417000 -1.371977 -12.891943 7.378712
-0.834000 -7.968825 5.613055 -8.628417
0.417000 -7.852979 5.545885 -9.592409
0.417000 -7.623564 4.782268 -8.332785
-0.834000 -6.094223 -0.810498 10.152858
0.417000 -5.441635 -0.801271 10.851596
0.417000 -6.044008 -1.709051 9.770703
-0.834000 4.002311 -10.297810 3.833491
0.417000 3.731823 -9.454923 4.275139
0.417000 4.875607 -10.075906 3.380165
-0.834000 -10.435958 2.284547 5.147791
0.417000 -10.743398 2.217885 4.275153
0.417000 -10.201828 3.198326 5.314215
-0.834000 -1.950235 4.616782 -8.377350
0.417000 -1.434967 5.081580 -7.723363
0.417000 -2.651689 5.301196 -8.502022
-0.834000 -11.967974 6.163547 -5.087635
0.417000 -11.805382 6.791121 -4.318854
0.417000 -11.006835 6.009551 -5.164859
-0.834000 -16.203576 2.665545 2.665692
0.417000 -16.256986 1.712743 2.793570
0.417000 -17.065168 2.996005 2.976737
-0.834000 -6.252886 1.403543 8.780864
0.417000 -6.862163 0.959202 8.225681
0.417000 -6.125749 0.738077 9.505884
-0.834000 -6.923258 3.090892 4.892735
0.417000 -6.356890 2.627049 5.531484
0.417000 -7.373584 3.664735 5.562609
-0.834000 -14.877118 5.303768 0.146095
0.417000 -15.758242 5.335981 0.558175
0.417000 -14.544838 6.230915 0.281683
-0.834000 -0.758086 2.508635 -9.262635
0.417000 -1.389730 3.206435 -8.906872
0.417000 -1.371661 1.765124 -9.175613
-0.834000 -8.592013 -4.501342 -6.935972
0.417000 -9.291350 -3.957435 -7.309437
0.417000 -9.073912 -4.722847 -6.078660
-0.834000 -4.491275 8.392921 8.383470
0.417000 -3.563922 8.524000 8.690017
0.417000 -4.844643 7.712507 9.003328
-0.834000 4.887250 3.613256 -6.021749
0.417000 4.939438 2.977598 -6.749380
0.417000 5.806103 3.644572 -5.645057
-0.834000 5.129979 0.526618 -6.257623
0.417000 4.918503 -0.376521 -6.077508
0.417000 5.846328 0.420941 -6.893039
-0.834000 -8.204833 9.361098 2.678194
0.417000 -7.693789 8.803980 2.046847
0.417000 -8.619324 9.970184 2.039401
0.417000 1.118908 -10.337796 -9.313024
-0.834000 5.378407 1.766050 -3.514911
0.417000 5.559344 1.392966 -4.387031
0.417000 4.421823 1.937818 -3.559140
-0.834000 -12.519486 -12.407695 -2.925762
0.417000 -11.552978 -12.516488 -2.928500
-0.834000 3.419209 -7.059076 -2.502444
0.417000 3.182133 -6.819170 -3.444899
0.417000 3.895842 -6.234167 -2.232752
-0.834000 6.448358 -2.911769 7.814107
0.417000 6.560712 -2.895025 6.803784
0.417000 7.091913 -2.176792 7.927447
-0.834000 2.085175 -7.340750 6.958300
0.417000 2.632866 -7.410016 6.157102
0.417000 1.153241 -7.358263 6.590609
-0.834000 -7.662370 7.065998 -4.410277
0.417000 -7.227392 7.835170 -4.700128
0.417000 -6.945968 6.369038 -4.428584
-0.834000 2.446953 -2.186924 -8.291303
0.417000 2.771552 -3.069321 -8.564503
0.417000 1.546777 -2.100484 -8.633931
-0.834000 8.545203 -6.798634 -5.548461
0.417000 8.302571 -7.264689 -6.381239
0.417000 7.646586 -6.599196 -5.244394
-0.834000 -9.106390 -6.728622 -0.368707
0.417000 -9.713599 -7.451309 -0.131277
0.417000 -9.054519 -6.288386 0.510270
-0.834000 -7.862319 2.520345 -4.582201
0.417000 -8.472603 1.769533 -4.348917
0.417000 -7.562859 2.394636 -5.490416
-0.834000 5.145120 -6.397107 2.173337
0.417000 5.183763 -5.819508 2.961518
0.417000 4.148020 -6.369817 2.036403
-0.834000 -12.380443 -8.135785 -5.838303
0.417000 -11.837184 -8.713329 -6.437097
0.417000 -11.846767 -8.109929 -4.985658
-0.834000 -10.576132 0.350940 1.916739
0.417000 -9.763497 0.572173 2.490214
0.417000 -11.189228 -0.017908 2.609885
-0.834000 -11.788904 -5.760885 -6.883611
0.417000 -11.660576 -6.019153 -7.823191
0.417000 -11.935686 -6.641207 -6.546825
-0.834000 -4.282032 -3.654950 7.126294
0.417000 -3.569125 -4.318123 7.431319
0.417000 -3.803604 -2.964522 6.658075
-0.834000 -1.554361 0.065995 3.653867
0.417000 -2.302979 0.682355 3.602294
0.417000 -0.934198 0.722324 3.378596
-0.834000 -3.083354 2.737768 4.617575
0.417000 -3.467114 3.332009 4.046267
0.417000 -2.153878 2.977128 4.458082
-0.834000 -4.770378 8.391243 -2.725838
0.417000 -5.207208 8.712609 -3.514432
0.417000 -4.058953 7.904444 -3.163738
-0.834000 -6.493137 -2.916733 -7.524149
0.417000 -7.299534 -3.499536 -7.712750
0.417000 -5.895458 -3.500160 -8.048262
-0.834000 -0.876260 3.681713 3.448575
0.417000 -0.051923 3.148301 3.365658
0.417000 -0.854936 4.139129 2.560715
-0.834000 -5.630092 -12.142612 7.498209
0.417000 -5.455264 -12.337697 8.410658
0.417000 -4.921658 -12.730315 7.197523
-0.834000 -3.193001 -11.951014 0.054212
0.417000 -3.043221 -11.971985 -0.896935
0.417000 -2.398156 -11.396019 0.274262
-0.834000 -10.047522 -4.910657 -4.681597
0.417000 -10.865248 -5.051358 -5.211414
0.417000 -10.319217 -5.278818 -3.858249
-0.834000 11.029542 6.861344 -5.315781
0.417000 10.183606 7.027552 -5.821728
-0.834000 -13.470911 4.712073 6.123425
0.417000 -12.887865 5.491127 6.032439
0.417000 -13.274713 4.339290 5.245929
-0.834000 -8.326977 6.700634 -1.655544
0.417000 -7.673358 6.580822 -2.330435
0.417000 -8.814932 5.886353 -1.726423
-0.834000 -2.942830 -1.770688 5.834307
0.417000 -2.852795 -1.834056 4.868631
0.417000 -3.685541 -1.123251 5.838875
-0.834000 -7.990292 -5.532686 9.025385
0.417000 -8.581413 -5.541840 9.747727
0.417000 -7.280251 -4.922302 9.261884
-0.834000 4.169784 -5.018057 -7.036994
0.417000 5.037474 -4.727028 -7.225772
0.417000 3.787163 -4.845407 -7.868307
-0.834000 -9.604683 9.191432 -2.162929
0.417000 -9.014844 8.491278 -2.369988
0.417000 -9.242890 9.859351 -2.758251
-0.834000 -11.341359 9.933315 6.687425
0.417000 -10.489627 9.456862 6.493558
-0.834000 -1.499149 -6.273311 2.970222
0.417000 -2.349578 -5.817334 3.264303
0.417000 -1.813987 -7.265050 3.004750
-0.834000 -8.845539 -2.539471 -4.039853
0.417000 -9.808180 -2.279901 -3.936159
0.417000 -8.875133 -3.527795 -4.108848
-0.834000 -7.134682 8.367689 0.255890
0.417000 -6.477234 8.833311 -0.183989
0.417000 -7.436601 7.651199 -0.285504
-0.834000 -4.161750 7.929537 4.447932
0.417000 -4.701092 7.539018 5.149207
0.417000 -3.899598 8.732929 4.994404
-0.834000 -10.205566 6.532338 7.973094
0.417000 -9.852231 7.291491 7.464582
0.417000 -10.295797 5.903800 7.301222
-0.834000 -4.722120 -12.313958 -4.758089
0.417000 -4.579751 -11.810678 -3.954277
0.417000 -5.679508 -12.520982 -4.684410
-0.834000 -7.512202 -9.579119 5.149472
0.417000 -7.607829 -10.549904 5.170463
0.417000 -7.630027 -9.362948 6.109709
-0.834000 -13.978882 -10.272426 -4.949543
0.417000 -13.511443 -9.452525 -5.375315
-0.834000 -4.894091 -12.736436 4.031445
0.417000 -4.711928 -12.174598 3.312984
0.417000 -3.985142 -13.009843 4.321889
-0.834000 2.831614 -12.575669 -4.439297
0.417000 3.324083 -11.906375 -5.007603
0.417000 3.536053 -13.173419 -4.175474
-0.834000 -6.364008 -3.322131 8.760929
0.417000 -6.755819 -3.188677 7.914196
0.417000 -5.495408 -3.546217 8.419332
-0.834000 -14.803798 -9.386491 1.570307
0.417000 -14.306206 -8.534617 1.617345
0.417000 -14.848477 -9.727451 0.690557
-0.834000 -2.110596 -11.886208 3.933872
0.417000 -2.284215 -11.018343 3.425150
0.417000 -1.398437 -12.320440 3.409203
-0.834000 -2.249183 9.715747 6.452954
0.417000 -1.743503 9.296666 5.764368
0.417000 -1.736028 9.754310 7.295192
-0.834000 -11.668848 -7.500660 -9.237937
0.417000 -10.933818 -7.789754 -9.798437
0.417000 -11.534438 -8.132321 -8.520906
-0.834000 1.511416 0.359654 6.157676
0.417000 0.781730 0.742197 6.645594
0.417000 1.138824 -0.500843 5.843005
-0.834000 4.226718 -8.223775 8.388512
0.417000 3.548563 -7.625299 7.961762
0.417000 3.905884 -9.133519 8.331184
-0.834000 -10.051670 -2.076234 6.242942
0.417000 -10.712877 -1.375392 6.463505
0.417000 -10.608805 -2.745335 5.702517
-0.834000 -6.033950 3.845526 7.465183
0.417000 -5.128735 4.056437 7.469564
0.417000 -6.020120 2.922185 7.788501
-0.834000 -4.398520 -0.783641 -9.438055
0.417000 -4.037441 -0.273348 -8.745502
0.417000 -3.752483 -0.556633 -10.109308
-0.834000 -2.647266 1.012983 -7.772060
0.417000 -2.745896 1.564092 -6.995893
0.417000 -1.692046 0.666089 -7.682504
-0.834000 -9.821429 -12.005508 -2.743213
0.417000 -8.924295 -12.339663 -2.962570
0.417000 -9.575238 -11.244645 -2.105235
-0.834000 1.655367 -3.958198 9.010694
0.417000 2.227860 -4.734243 9.150471
0.417000 2.325261 -3.326759 8.664425
-0.834000 -5.827511 11.257709 -1.796768
0.417000 -5.207792 10.576653 -2.233368
0.417000 -5.741387 11.025971 -0.863424
-0.834000 3.934154 6.694562 -4.903047
0.417000 4.386960 6.947086 -4.062458
0.417000 3.801783 5.762815 -4.720531
-0.834000 -5.714307 10.636381 0.846847
0.417000 -6.093794 10.196695 1.592964
0.417000 -4.917190 11.113247 1.143299
-0.834000 -15.646368 -3.820832 1.759896
0.417000 -15.614116 -3.121980 1.092058
0.417000 -15.100730 -3.535358 2.440441
-0.834000 0.151881 -5.153166 -5.731063
0.417000 0.091621 -4.243568 -6.219586
0.417000 -0.312317 -5.722008 -6.377578
-0.834000 -3.602726 -1.347954 -5.498484
0.417000 -3.490491 -2.071709 -6.108337
0.417000 -3.702457 -1.761773 -4.635751
-0.834000 -10.549974 -2.943835 -8.266610
0.417000 -10.400632 -3.409257 -9.118392
0.417000 -11.529929 -2.769650 -8.367886
-0.834000 -3.844329 -2.302302 -3.160001
0.417000 -4.448618 -3.026778 -2.863261
0.417000 -4.166891 -1.517825 -2.665900
-0.834000 0.327154 7.503333 2.600214
0.417000 -0.527944 7.053352 2.605519
0.417000 0.555503 7.461134 1.658953
-0.834000 7.264803 -1.173990 -7.772381
0.417000 6.470917 -1.646891 -7.520127
0.417000 7.895519 -1.471347 -7.054840
-0.834000 -1.557059 -9.861640 2.072214
0.417000 -1.128879 -10.212376 1.282155
0.417000 -2.508258 -10.033432 1.806970
-0.834000 10.607248 -0.067034 3.471652
0.417000 10.586959 0.689270 4.158649
0.417000 10.724649 -0.882970 3.967593
-0.834000 6.506881 6.412402 -0.246415
0.417000 6.859931 5.986430 0.593810
0.417000 7.186563 7.171342 -0.372379
-0.834000 -6.250134 4.677164 -4.756445
0.417000 -6.652962 3.850503 -4.430456
0.417000 -5.878951 4.413422 -5.656798
-0.834000 -3.026492 8.498775 -0.004129
0.417000 -3.365176 8.722285 -0.900348
0.417000 -2.181904 8.970916 0.041653
-0.834000 -6.259217 6.524108 2.363910
0.417000 -5.411473 6.725438 2.793687
0.417000 -6.248033 7.126454 1.602611
-0.834000 -3.603484 3.091723 -2.970275
0.417000 -4.409367 2.556831 -2.993280
0.417000 -3.625666 3.179473 -3.975364
-0.834000 -0.465522 -7.975976 9.799480
0.417000 -0.699622 -7.925527 10.751141
0.417000 -1.355001 -7.856543 9.366169
-0.834000 -0.926674 6.467325 -6.211259
0.417000 -0.497255 6.749833 -5.387233
0.417000 -0.742356 7.241637 -6.751868
-0.834000 -6.406164 -11.431076 1.093183
0.417000 -7.177700 -10.896707 0.978125
0.417000 -6.631999 -12.280419 0.653901
-0.834000 -11.443500 -6.280562 4.352257
0.417000 -11.645482 -5.797836 3.572123
0.417000 -11.135454 -5.671695 4.940438
-0.834000 -4.517299 0.682965 6.119090
0.417000 -4.493260 0.893792 7.045748
0.417000 -4.030918 1.483802 5.767773
-0.834000 -9.008235 -8.189153 -9.747589
0.417000 -8.078414 -8.379695 -9.832312
-0.834000 7.617990 -7.967050 5.326557
0.417000 7.114506 -8.251927 6.173002
0.417000 7.554900 -7.015048 5.295705
-0.834000 -4.908739 -10.752809 -6.867822
0.417000 -4.747813 -9.982802 -6.265977
0.417000 -5.162299 -11.452763 -6.221184
-0.834000 4.576121 4.403029 -1.413830
0.417000 5.345993 4.998467 -1.208960
0.417000 5.008937 3.979129 -2.183874
-0.834000 -11.834530 -9.792522 2.241401
0.417000 -11.050469 -9.626369 2.699965
0.417000 -12.464832 -9.606624 2.919374
-0.834000 2.459129 0.166754 9.402740
0.417000 3.152686 0.672964 8.873058
0.417000 2.276388 0.706393 10.136203
-0.834000 -1.697221 -9.062454 -6.036825
0.417000 -2.267548 -8.636520 -5.368794
0.417000 -0.807449 -8.909450 -5.709597
-0.834000 2.027288 -9.701748 -6.546767
0.417000 1.693575 -10.054661 -7.421325
0.417000 2.683468 -10.437968 -6.387166
-0.834000 2.842846 -3.016486 5.269070
0.417000 2.845844 -2.623730 6.148472
0.417000 2.046854 -2.645178 4.910940
-0.834000 1.331104 4.297821 -2.029887
0.417000 1.213517 5.227862 -2.288422
0.417000 1.822197 3.846441 -2.759764
-0.834000 0.613407 -4.736196 3.674481
0.417000 -0.069574 -5.404964 3.821501
0.417000 1.357528 -5.078233 4.162982
-0.834000 3.611304 -5.929908 10.036857
0.417000 3.354047 -6.894370 10.056104
0.417000 4.470045 -5.889918 9.642654
-0.834000 -14.048607 -2.303954 -5.129613
0.417000 -13.447880 -1.581559 -5.324433
0.417000 -14.737264 -1.972758 -4.472688
-0.834000 6.825256 -2.804641 -0.319790
0.417000 6.968060 -1.816345 -0.299511
0.417000 7.665612 -3.100552 -0.673624
-0.834000 -4.151913 -9.816690 5.548027
0.417000 -4.616501 -10.628094 5.205277
0.417000 -4.638309 -9.024509 5.154503
-0.834000 -1.812803 4.792649 -1.978142
0.417000 -2.488191 4.082821 -2.038725
0.417000 -1.339092 4.607884 -1.103284
-0.834000 -3.839672 -6.031507 8.753423
0.417000 -3.556838 -6.935227 8.659371
0.417000 -4.788428 -6.072970 8.594536
-0.834000 -9.503961 -11.137639 6.664192
0.417000 -9.985792 -11.657211 7.418852
0.417000 -9.114552 -11.810906 6.141435
-0.834000 -13.145283 1.515562 -2.028765
0.417000 -13.092572 2.342771 -2.566424
0.417000 -13.439085 1.926033 -1.168337
-0.834000 3.329623 -7.532464 4.484577
0.417000 4.050645 -6.859924 4.575065
0.417000 2.996968 -7.107399 3.606144
-0.834000 -14.527248 4.086278 -2.151457
0.417000 -15.433035 3.843033 -2.259785
0.417000 -14.570594 4.564449 -1.266511
-0.834000 11.141206 -2.802064 0.189164
0.417000 11.370888 -3.703516 0.522183
0.417000 11.253250 -2.180755 0.941735
-0.834000 -2.407999 -3.836868 -6.410535
0.417000 -1.703538 -3.178583 -6.112765
0.417000 -2.551459 -4.470008 -5.665907
-0.834000 11.183487 -5.487722 0.766743
0.417000 11.509072 -6.240607 0.246828
0.417000 11.131224 -5.841416 1.673445
-0.834000 2.411897 10.368508 3.839372
0.417000 2.597738 9.906421 4.697041
0.417000 2.308722 11.311748 3.968401
-0.834000 3.369714 0.663569 4.168759
0.417000 2.803482 0.394660 4.947818
0.417000 3.525272 -0.191961 3.772735
-0.834000 -12.345196 -0.226770 3.934865
0.417000 -12.833839 -0.046154 4.779668
0.417000 -13.016472 -0.295624 3.253763
-0.834000 1.254596 6.986871 5.034262
0.417000 1.083573 7.249094 4.104498
0.417000 1.783067 7.743746 5.388517
-0.834000 8.676294 3.845383 -8.748666
0.417000 7.981774 3.264423 -8.405518
0.417000 9.490659 3.364650 -8.669028
-0.834000 10.720363 0.875662 -3.531755
0.417000 10.328797 0.265302 -2.943397
0.417000 10.519653 1.775773 -3.122786
-0.834000 9.714501 5.462083 -0.657514
0.417000 9.805079 6.165441 0.068451
0.417000 9.194732 5.940827 -1.344030
-0.834000 -8.391319 0.698272 3.537094
0.417000 -7.469659 0.804956 3.315355
0.417000 -8.540654 1.408451 4.286112
-0.834000 0.027039 6.713725 8.610185
0.417000 -0.521615 5.956384 8.447291
0.417000 0.938567 6.304827 8.589064
-0.834000 1.537276 5.341155 -8.077925
0.417000 2.189285 4.657122 -8.296134
0.417000 0.701505 4.880843 -8.231873
-0.834000 3.252259 10.075401 -7.808250
0.417000 3.302889 9.075241 -7.836626
0.417000 3.896148 10.311153 -7.078158
-0.834000 -7.156175 -7.185483 -2.368056
0.417000 -7.997766 -6.972688 -1.833807
0.417000 -6.637659 -6.579912 -1.817110
-0.834000 -13.128529 -2.417567 -1.090599
0.417000 -12.477904 -2.232059 -1.744208
0.417000 -12.632078 -2.446472 -0.182372
-0.834000 12.303148 3.133091 -0.966635
0.417000 12.591037 3.812650 -0.301673
0.417000 12.506417 2.247506 -0.641820
-0.834000 5.257237 9.975639 1.976042
0.417000 6.039144 10.595623 1.978141
0.417000 4.727789 10.422546 2.702593
-0.834000 -5.020004 5.152677 -1.127956
0.417000 -4.421960 5.864793 -0.767437
0.417000 -4.594922 4.659997 -1.788268
-0.834000 -0.667487 1.644272 -5.122339
0.417000 0.193620 1.504149 -5.497894
0.417000 -0.505333 2.531900 -4.790883
-0.834000 1.012771 -13.443995 0.352504
0.417000 1.561975 -14.162641 0.774617
0.417000 1.681020 -13.115740 -0.343972
-0.834000 -7.353396 -8.415290 -4.866336
0.417000 -6.734681 -7.735451 -5.174402
0.417000 -7.453796 -8.050593 -4.017783
-0.834000 -9.147989 -10.308340 -5.499922
0.417000 -8.493256 -9.598015 -5.297491
0.417000 -9.732414 -10.117777 -4.738652
-0.834000 8.467700 -7.595780 2.667847
0.417000 8.238940 -7.962412 3.582459
0.417000 9.227387 -7.050502 2.973571
-0.834000 8.922348 -4.456172 -1.303964
0.417000 9.158107 -5.312981 -0.835767
0.417000 9.617262 -3.841770 -0.958752
-0.834000 8.832615 4.565818 4.260378
0.417000 8.217997 4.030975 4.786980
0.417000 8.248657 4.782423 3.533774
-0.834000 -8.828883 -10.277086 1.095153
0.417000 -9.160958 -9.635012 1.810513
0.417000 -9.354467 -11.071814 1.245357
-0.834000 9.567021 -10.057046 -2.037979
0.417000 9.103133 -10.780107 -2.418514
0.417000 9.690919 -10.349392 -1.163472
-0.834000 10.145705 -4.161411 -3.744696
0.417000 9.696528 -4.453180 -2.922145
0.417000 9.685176 -4.719845 -4.364072
-0.834000 9.962622 -3.655288 5.110026
0.417000 10.379563 -4.428242 5.587656
0.417000 10.207600 -2.886586 5.674959
-0.834000 1.098774 -9.648344 8.257187
0.417000 0.616367 -9.128864 9.015870
0.417000 1.447153 -8.871516 7.777083
-0.834000 5.089849 -8.931410 -5.024446
0.417000 5.361506 -8.020548 -5.014191
0.417000 5.305105 -9.071282 -4.114057
-0.834000 6.879897 -8.655097 -2.502658
0.417000 7.547321 -8.703133 -1.765820
0.417000 6.156618 -8.235184 -2.044498
-0.834000 -1.611291 -9.165234 4.816802
0.417000 -1.411770 -9.351278 3.878164
0.417000 -2.469034 -9.673331 4.936127
-0.834000 8.549743 -6.957555 -0.030360
0.417000 9.481259 -7.213843 0.043043
0.417000 8.325030 -7.299919 0.842715
-0.834000 -9.510104 -8.762763 3.360647
0.417000 -8.794360 -9.019105 3.887498
0.417000 -9.785032 -7.935664 3.751670
-0.834000 8.172064 1.260647 7.153514
0.417000 9.009985 1.525708 6.771805
0.417000 7.836769 0.740830 6.359773
-0.834000 -4.149420 11.258524 7.589325
0.417000 -3.309705 10.934528 7.144600
0.417000 -4.598084 10.457750 7.753699
-0.834000 3.384906 7.383617 -7.389492
0.417000 3.619396 7.159535 -6.530787
0.417000 2.732819 6.710941 -7.620060
-0.834000 0.231850 0.409794 -7.718271
0.417000 0.281425 1.274151 -8.023822
0.417000 0.938370 0.368662 -7.134750
-0.834000 -12.740217 5.885601 9.667743
0.417000 -11.827957 5.745177 9.487346
-0.834000 6.100979 -6.042721 -4.538283
0.417000 6.264847 -6.073854 -3.569515
0.417000 5.860884 -5.095640 -4.722821
-0.834000 -2.474140 -4.867554 0.604336
0.417000 -2.995207 -4.787936 1.447351
0.417000 -1.567506 -5.117314 1.082684
-0.834000 2.420996 -0.598580 -3.806102
0.417000 1.464688 -0.436690 -3.824517
0.417000 2.827716 -0.377506 -2.931359
-0.834000 6.673755 -3.667032 2.465347
0.417000 6.552968 -3.810035 1.509152
0.417000 7.612225 -3.863917 2.500728
-0.834000 -7.085597 4.268219 10.369083
0.417000 -7.271393 4.261424 9.405200
0.417000 -6.937480 3.349919 10.572588
-0.834000 7.201418 1.665660 -7.786067
0.417000 7.379934 1.799660 -6.872867
0.417000 7.390696 0.686122 -7.916156
-0.834000 9.346742 6.544031 -3.164131
0.417000 8.652308 7.030159 -3.628249
0.417000 10.065500 6.692669 -3.798852
-0.834000 -0.546825 -7.107106 6.127159
0.417000 -0.867238 -7.762283 5.498291
0.417000 -1.177726 -7.211210 6.853007
-0.834000 5.574195 -3.274762 -4.556668
0.417000 6.209068 -2.563044 -4.277403
0.417000 5.381516 -3.704482 -3.695755
-0.834000 2.870279 9.016454 6.056763
0.417000 3.701477 9.315555 6.375906
0.417000 2.490538 9.211806 6.881351
-0.834000 7.693821 9.518371 4.955742
0.417000 7.078950 9.206825 5.634900
0.417000 8.481328 9.258097 5.480194
-0.834000 -8.808648 -9.512885 -1.722738
0.417000 -7.997114 -9.139201 -2.067294
0.417000 -8.706275 -9.561189 -0.763921
-0.834000 2.657438 -12.567028 4.823886
0.417000 3.259858 -11.796261 4.537372
0.417000 1.973821 -12.069468 5.299220
-0.834000 1.796812 -10.830984 2.245624
0.417000 2.641468 -10.561991 2.744816
0.417000 1.652400 -11.789615 2.367013
-0.834000 -10.870408 -8.677945 -3.730472
0.417000 -11.063570 -9.084405 -2.856375
0.417000 -10.586448 -7.762193 -3.496807
-0.834000 1.828170 -9.640470 -2.346580
0.417000 2.464784 -8.938776 -2.223530
0.417000 1.371371 -9.334255 -3.155546
-0.834000 1.983178 -7.956589 -9.303272
0.417000 1.874948 -8.899051 -9.555054
0.417000 2.884623 -7.923693 -8.915094
-0.834000 2.683652 -6.334201 -5.242215
0.417000 1.880765 -5.731638 -5.374566
0.417000 3.340382 -5.736247 -5.634558
-0.834000 8.693993 -4.366699 -10.246886
0.417000 9.104095 -3.486644 -10.242787
-0.834000 2.246113 -12.149921 -1.742153
0.417000 1.950820 -11.193021 -1.789847
0.417000 2.369127 -12.372791 -2.694734
-0.834000 6.203687 6.674542 -7.421395
0.417000 5.603318 6.073940 -7.894026
0.417000 5.654752 7.489564 -7.382610
-0.834000 7.908375 0.878302 -5.114360
0.417000 8.742430 1.317272 -5.253138
0.417000 8.088289 -0.016413 -4.783662
-0.834000 10.171081 0.362619 0.725939
0.417000 10.212266 0.080981 1.701732
0.417000 9.440773 0.997637 0.752782
-0.834000 10.825044 -6.755994 3.196426
0.417000 10.864771 -6.399241 4.123467
0.417000 11.733616 -7.202246 3.160365
-0.834000 4.682110 -4.593011 -2.254201
0.417000 5.081466 -5.277967 -1.660585
0.417000 5.010671 -3.811511 -1.685940
-0.834000 6.537624 -4.637407 -8.141655
0.417000 6.834282 -4.293512 -9.039224
0.417000 6.893821 -5.575830 -8.133523
-0.834000 4.815800 -1.993190 -6.878870
0.417000 4.001197 -2.268054 -7.354927
0.417000 4.950818 -2.713185 -6.210559
-0.834000 -5.760570 6.862753 6.496328
0.417000 -5.632235 7.602958 7.116346
0.417000 -5.302557 6.102561 6.928600
-0.834000 -0.303754 -2.087410 -6.002513
0.417000 -0.392733 -1.287069 -6.572231
0.417000 -0.132954 -1.682891 -5.141800
-0.834000 4.320592 -10.973230 -0.304606
0.417000 3.502935 -11.278584 -0.744729
0.417000 3.976770 -10.338861 0.389597
-0.834000 7.296786 -2.942018 5.265367
0.417000 8.195739 -3.334115 5.236430
0.417000 6.910299 -3.316613 4.408718
-0.834000 -4.322167 -10.186610 2.295719
0.417000 -4.978053 -10.526853 1.714190
0.417000 -4.871115 -9.440030 2.630508
-0.834000 -7.599167 -12.378625 5.395185
0.417000 -6.919450 -12.478805 4.710011
0.417000 -7.029681 -12.366779 6.194211
-0.834000 2.312047 9.716563 8.821300
0.417000 1.363133 9.552312 8.774391
-0.834000 7.315450 5.688988 7.759673
0.417000 6.385434 5.834123 8.005435
0.417000 7.303696 4.998544 7.071842
-0.834000 7.324251 3.013642 -2.230033
0.417000 6.635412 2.521447 -2.762094
0.417000 7.487378 3.669778 -2.906073
-0.834000 -8.194351 -6.090005 5.348974
0.417000 -9.019988 -6.091042 5.849891
0.417000 -7.892340 -6.994384 5.527750
-0.834000 0.280824 -1.490569 9.847840
0.417000 0.582091 -2.376957 9.616642
0.417000 0.921689 -0.889977 9.464548
-0.834000 8.276148 -2.014194 -4.120648
0.417000 8.783262 -2.815946 -4.150577
0.417000 8.692857 -1.639009 -3.292323
-0.834000 3.316431 5.070115 4.264075
0.417000 2.461630 5.405067 3.927386
0.417000 3.840671 5.859587 4.374353
-0.834000 -2.502016 -0.912757 10.009640
0.417000 -1.557556 -0.924006 10.047691
0.417000 -2.679558 -1.882863 9.982342
-0.834000 -0.369217 8.818485 -2.487678
0.417000 -0.822977 8.003173 -2.288006
0.417000 0.579966 8.491435 -2.339990
-0.834000 5.056336 6.948681 5.060596
0.417000 5.817818 6.877339 4.436590
0.417000 5.022407 7.882963 5.213356
-0.834000 2.315339 5.358486 8.044584
0.417000 2.221186 4.529725 8.611912
0.417000 1.848686 5.033816 7.259554
-0.834000 2.303509 7.965298 -1.804193
0.417000 3.048905 7.579576 -2.334612
0.417000 2.720317 7.988094 -0.900348
-0.834000 6.436773 4.753054 -4.042368
0.417000 5.807366 5.515946 -4.085566
0.417000 7.289996 5.077864 -4.343092
-0.834000 -0.715318 10.032980 -0.036970
0.417000 -0.443697 9.978748 -0.912627
0.417000 -0.265674 10.832098 0.246644
-0.834000 7.942490 8.532944 -0.976684
0.417000 8.449127 8.481583 -1.845413
0.417000 8.676709 8.586874 -0.374719
-0.834000 -1.474281 9.078659 9.152045
0.417000 -0.852445 8.361590 8.976576
-0.834000 -5.433969 6.422343 10.215618
0.417000 -6.031193 5.666121 10.213330
0.417000 -5.012983 6.465597 11.104325
-0.834000 -0.627808 -11.167612 -0.004682
0.417000 -0.868901 -11.073815 -0.978483
0.417000 -0.250411 -12.096684 0.142755
-0.834000 -0.093152 -1.997075 -9.290872
0.417000 -0.213544 -1.777413 -10.262090
0.417000 0.042087 -1.138153 -8.910779
-0.834000 -5.539286 -11.404670 -1.976606
0.417000 -5.921017 -12.304625 -1.894475
0.417000 -5.125385 -11.189847 -1.114069
-0.834000 3.700312 0.493909 -9.240613
0.417000 4.650550 0.468636 -9.353325
0.417000 3.602164 -0.316735 -8.740840
-0.834000 -3.919002 -7.253312 0.029524
0.417000 -4.154839 -7.031910 -0.860456
0.417000 -3.390965 -6.498218 0.204089
-0.834000 -0.311523 -0.548108 -3.597085
0.417000 -1.043288 -0.776222 -3.047118
0.417000 -0.574971 0.286297 -3.953902
-0.834000 2.576203 -3.357298 -4.106193
0.417000 2.338973 -2.384737 -4.089836
0.417000 3.502471 -3.289065 -4.368393
-0.834000 11.122711 -8.336573 -0.103342
0.417000 10.737727 -9.038838 0.466558
0.417000 11.044593 -8.851029 -0.892129
-0.834000 8.872596 -4.110377 -6.440480
0.417000 8.619173 -4.039195 -7.359547
0.417000 8.759510 -5.098877 -6.259340
-0.834000 4.228025 5.218089 1.405071
0.417000 3.959101 4.325358 1.585174
0.417000 4.184881 5.296923 0.471819
-0.834000 7.029225 -0.112563 -1.298958
0.417000 6.666745 0.760429 -1.231782
0.417000 8.019477 0.044585 -1.344635
-0.834000 -9.397582 5.771116 -6.030884
0.417000 -8.781506 5.908558 -6.773554
0.417000 -8.855468 5.648983 -5.237271
-0.834000 3.749432 7.804807 0.513371
0.417000 3.810629 6.974983 0.972545
0.417000 4.632963 8.230648 0.735199
0.417000 8.360683 -6.653065 8.097882
-0.834000 6.898183 5.244624 2.170631
0.417000 5.912539 5.447912 1.928815
0.417000 6.798625 4.293580 2.161799
-0.834000 7.010472 2.509281 2.389382
0.417000 7.933868 2.786309 2.076456
0.417000 6.927552 1.675625 1.948175
-0.834000 1.193004 -8.782969 0.584383
0.417000 1.414603 -9.490066 1.200875
0.417000 0.765595 -9.362754 -0.078406
-0.834000 0.894025 1.542579 3.709972
0.417000 1.790276 1.690768 3.404390
0.417000 1.064629 1.503806 4.664202
-0.834000 -3.986277 6.451110 -8.585201
0.417000 -3.457515 7.309880 -8.594543
0.417000 -4.834530 6.677709 -8.113686
-0.834000 4.684993 -5.088481 4.560411
0.417000 5.127437 -5.108450 5.398259
0.417000 4.268430 -4.214215 4.503096
-0.834000 -2.256799 -5.650927 -2.669880
0.417000 -1.665675 -6.341766 -2.315390
0.417000 -1.590305 -4.936352 -2.613942
-0.834000 -8.894362 8.781182 6.135298
0.417000 -8.537207 8.302994 5.378897
0.417000 -8.108957 9.155846 6.438498
-0.834000 -4.698195 4.446878 3.451281
0.417000 -5.579439 4.370256 3.045048
0.417000 -4.842732 4.152161 4.379783
-0.834000 3.889308 -8.282557 0.186287
0.417000 2.946604 -8.397824 0.279507
0.417000 3.729121 -7.728958 -0.614926
-0.834000 6.463169 -12.736270 -0.957457
0.417000 5.712316 -12.309712 -0.544417
0.417000 6.984100 -13.057545 -0.226015
-0.834000 -6.200974 -5.986138 0.684135
0.417000 -5.404443 -6.556527 0.764920
0.417000 -5.919765 -5.230701 1.110336
-0.834000 0.554234 -11.297019 6.042083
0.417000 -0.310473 -11.099749 5.631386
0.417000 0.578230 -10.637886 6.764610
-0.834000 12.263803 -6.120248 -2.876498
0.417000 11.806531 -5.378012 -3.180521
0.417000 11.492958 -6.707276 -2.880320
-0.834000 4.487997 1.137823 7.999736
0.417000 4.314326 1.702484 7.242534
0.417000 5.295539 1.496393 8.250806
-0.834000 4.432353 -7.837586 -7.459111
0.417000 4.260100 -6.911017 -7.157621
0.417000 3.734875 -8.211719 -6.916663
-0.834000 6.362528 -5.394316 6.700522
0.417000 6.750299 -6.003328 7.306892
0.417000 6.336072 -4.577321 7.212596
-0.834000 -6.967424 0.275908 -8.052915
0.417000 -6.247609 -0.334336 -8.261726
0.417000 -7.483584 -0.196642 -7.371539
-0.834000 8.194363 -12.186788 -3.027748
0.417000 7.591968 -12.046229 -2.302623
-0.834000 10.230757 3.596370 -2.672626
0.417000 11.052699 3.548534 -2.179493
0.417000 9.741290 4.147248 -2.021219
-0.834000 5.986681 -9.336042 2.147753
0.417000 6.309336 -8.376167 2.298873
0.417000 5.364843 -9.217218 1.373027
-0.834000 9.830334 -7.435872 -3.245976
0.417000 9.579454 -8.300525 -2.870225
0.417000 9.328730 -7.416324 -4.092695
-0.834000 -2.793737 -8.440703 7.691427
0.417000 -2.934806 -9.312971 8.102572
0.417000 -3.256067 -8.515335 6.824199
-0.834000 3.080036 -4.543997 -9.459757
0.417000 2.271153 -4.988795 -9.272820
0.417000 3.201330 -4.889820 -10.384969
-0.834000 -9.765478 4.644648 -3.053623
0.417000 -9.232169 3.921532 -3.325551
0.417000 -10.635060 4.191284 -3.023537
-0.834000 8.714306 2.947663 0.118767
0.417000 8.280803 3.016997 -0.819876
0.417000 9.139545 3.823204 0.174329
-0.834000 -1.191145 1.184746 6.989783
0.417000 -1.421626 0.672997 7.721661
0.417000 -1.522031 0.617356 6.236493
-0.834000 12.086815 5.391476 0.794203
0.417000 11.779702 5.232193 1.692939
0.417000 11.285163 5.196911 0.274700
-0.834000 5.014960 7.402276 -2.457083
0.417000 5.075118 6.954731 -1.600599
0.417000 5.499336 8.259893 -2.213134
-0.834000 9.721034 7.387079 1.245182
0.417000 10.302323 8.077554 1.532240
0.417000 9.043791 7.455205 1.984911
-0.834000 6.578867 10.237807 -2.696247
0.417000 7.070115 10.273228 -1.861052
0.417000 5.796057 10.727667 -2.298108
-0.834000 6.920979 -7.812169 8.205756
0.417000 5.931800 -7.973651 8.437733
-0.834000 5.908804 -6.065968 -0.515166
0.417000 6.832432 -5.965007 -0.218922
0.417000 5.556306 -6.384075 0.330284
-0.834000 8.434474 -1.077913 8.623121
0.417000 8.395235 -0.196774 8.166973
0.417000 7.800458 -0.777919 9.297936
0.417000 8.909717 -9.634117 5.329513
0.417000 10.615590 -9.011149 -4.490810
-0.834000 4.782763 6.359466 7.777603
0.417000 3.876654 6.114176 8.028715
0.417000 4.639174 6.367527 6.819879
-0.834000 -2.005698 -2.685329 3.275118
0.417000 -1.612644 -1.927124 2.790523
0.417000 -1.193041 -3.225303 3.232949
-0.834000 -3.777748 -4.674962 3.039358
0.417000 -4.573570 -4.398190 3.495733
0.417000 -3.369980 -3.808580 3.072936
-0.834000 2.832263 3.274089 -9.564259
0.417000 2.403160 3.251332 -10.411217
0.417000 3.183207 2.382675 -9.584452
-0.834000 6.782216 -0.718236 10.581896
-0.834000 4.309391 10.543632 -1.086490
0.417000 3.546488 10.033116 -0.822824
0.417000 4.608797 10.804869 -0.232738
-0.834000 0.116612 10.117604 -4.781536
0.417000 -0.366904 9.748986 -4.008352
0.417000 0.187363 11.028377 -4.464855
-0.834000 8.191273 5.621535 -5.871729
0.417000 7.388740 6.075776 -6.203151
0.417000 8.208946 4.914783 -6.543768
0.417000 8.861080 10.064459 3.440921
-0.834000 -0.532939 -9.924252 -8.660924
0.417000 -0.780673 -9.551552 -7.872587
0.417000 -1.380275 -10.352505 -8.927410
-0.834000 0.691507 -4.912675 -2.871182
0.417000 1.426863 -4.356535 -3.077049
0.417000 0.365039 -4.919991 -3.802219
-0.834000 3.365878 -2.083360 8.059899
0.417000 3.100412 -1.160897 8.356442
0.417000 4.346730 -2.046709 8.075850
-0.834000 10.471283 -6.485267 5.780859
0.417000 9.914362 -6.586725 6.599001
-0.834000 10.748546 1.611048 -6.199265
0.417000 11.116381 1.224812 -5.374516
0.417000 10.990439 2.543523 -5.939852
-0.834000 10.508987 -1.646136 6.677913
0.417000 9.845186 -1.342207 7.329305
0.417000 11.237814 -1.185867 7.089035
0.417000 7.793633 6.288028 -8.826649
-0.834000 4.274318 3.043780 5.575800
0.417000 4.435181 2.325879 4.874640
0.417000 3.869555 3.760568 5.087285
-0.834000 8.103137 -11.014113 2.680692
0.417000 7.160655 -10.673126 2.820225
0.417000 8.629693 -10.363289 2.281057
-0.834000 10.858979 1.780394 -8.963179
0.417000 10.885749 1.473263 -7.990224
-0.834000 -0.754916 -4.971800 8.025553
0.417000 0.080583 -4.456289 8.302834
0.417000 -0.365286 -5.657052 7.419576
-0.834000 -0.796000 -8.329276 -2.214268
0.417000 -0.495561 -8.668594 -3.034037
0.417000 -0.026723 -7.900880 -1.906209
-0.834000 4.170811 -11.049381 -6.251568
0.417000 4.523818 -10.232096 -5.866403
0.417000 4.606541 -10.974450 -7.047578
-0.834000 7.672677 -0.339783 5.114818
0.417000 8.295567 -0.213347 4.373279
0.417000 7.412312 -1.269394 5.058161
-0.834000 7.247542 8.202577 -4.365399
0.417000 6.874246 8.986088 -3.947088
0.417000 6.965103 8.302917 -5.302189
-0.834000 9.714315 -1.005209 -1.648330
0.417000 10.362704 -1.762468 -1.536947
0.417000 9.977627 -0.488795 -0.900958
-0.834000 2.022347 -6.651419 2.126817
0.417000 1.199098 -6.410982 2.586568
0.417000 1.656153 -7.366045 1.612457
-0.834000 7.626127 -11.286868 -5.789313
0.417000 6.814570 -10.736054 -5.694162
0.417000 7.868719 -11.486096 -4.882313
-0.834000 -13.022768 -12.245176 1.418600
0.417000 -12.965123 -11.344110 1.774097
0.417000 -13.779358 -12.117027 0.787795
-0.834000 11.032306 6.667498 4.589834
0.417000 10.133349 6.889306 4.788497
-0.834000 10.950436 -2.521438 -7.247654
0.417000 10.325625 -2.996847 -6.593808
0.417000 11.798168 -2.386889 -6.782462
-0.834000 -0.338570 4.031422 7.415795
0.417000 -0.599982 4.469237 6.581315
0.417000 -0.398117 3.091965 7.268563
-0.834000 11.150048 4.341375 3.030420
0.417000 10.229729 4.252255 3.308510
0.417000 11.432899 5.066659 3.674344
-0.834000 -0.388330 9.529801 4.485982
0.417000 -0.205944 8.766781 3.883431
0.417000 0.368832 10.128950 4.323847
-0.834000 -10.077412 -3.975549 10.877685
0.417000 -10.996557 -4.123109 10.556821
0.417000 -9.909944 -3.089094 10.510120
-0.834000 -10.541980 -9.449473 -7.648277
0.417000 -9.781641 -9.193866 -8.170845
0.417000 -10.130204 -10.042258 -6.939566
-0.834000 -10.767772 -2.223425 0.976457
0.417000 -10.456072 -1.311287 1.062420
0.417000 -9.978607 -2.784806 1.046624
-0.834000 -11.959184 5.236619 3.417551
0.417000 -11.383390 5.947473 3.145238
0.417000 -11.839028 4.629439 2.656208
-0.834000 -9.779366 10.595844 0.717339
0.417000 -9.866545 11.630141 0.747663
0.417000 -9.774880 10.423003 -0.236014
-0.834000 -14.855617 -0.717190 -2.930596
0.417000 -14.815416 0.227900 -2.856815
0.417000 -14.058663 -0.981310 -2.453697
-0.834000 -15.097654 6.694816 6.409574
0.417000 -14.525312 7.043255 5.673509
0.417000 -14.623120 5.798366 6.564023
-0.834000 -15.493847 -6.682948 -1.088921
0.417000 -15.179051 -7.360595 -1.685660
0.417000 -16.306239 -6.250447 -1.528683
-0.834000 -8.777585 3.710174 3.019402
0.417000 -8.229791 3.930989 2.331158
0.417000 -8.067768 3.331425 3.576348
-0.834000 -14.113385 7.804494 -0.046819
0.417000 -13.158821 7.805763 -0.060275
0.417000 -14.323478 7.493232 -0.984373
-0.834000 -11.726826 8.076518 -3.230704
0.417000 -11.003614 8.686533 -2.895767
0.417000 -12.448821 8.153779 -2.572258
-0.834000 -7.396476 -2.577094 6.363639
0.417000 -8.340843 -2.420126 6.241511
0.417000 -7.150048 -3.221839 5.669790
-0.834000 -11.176819 5.913969 -8.327484
0.417000 -11.190613 5.927579 -7.341322
0.417000 -10.452581 5.215447 -8.510541
-0.834000 -10.366777 7.469070 3.236799
0.417000 -9.540637 7.178684 3.690434
0.417000 -10.194398 8.463710 3.163079
-0.834000 -11.754943 2.811581 -6.443517
0.417000 -11.787876 3.164959 -5.519908
0.417000 -12.702306 2.573046 -6.503756
-0.834000 -14.316526 -0.116199 1.927659
0.417000 -14.094052 0.642542 1.365022
0.417000 -14.693611 -0.633653 1.214803
-0.834000 -9.839854 3.225118 -8.319467
0.417000 -10.316927 3.189254 -7.463836
0.417000 -10.397531 2.662280 -8.856042
-0.834000 -14.659007 7.335645 -2.729298
0.417000 -14.798675 6.391691 -2.948262
0.417000 -14.704233 7.650152 -3.661966
-0.834000 -13.656205 0.378726 6.172270
0.417000 -12.869403 0.926888 6.182192
0.417000 -14.067818 0.821594 6.941292
-0.834000 -3.487763 2.551492 -5.497877
0.417000 -2.722821 1.979082 -5.313703
0.417000 -4.176440 1.869363 -5.537489
-0.834000 -13.958019 2.600627 7.795831
0.417000 -14.213385 2.799582 8.713544
0.417000 -13.868667 3.493245 7.281570
-0.834000 -3.059616 6.854273 -4.171129
0.417000 -2.570387 6.739578 -4.998460
0.417000 -3.365474 5.898064 -4.037713
-0.834000 -14.811857 -6.541845 1.400269
0.417000 -15.210232 -5.651861 1.551458
0.417000 -14.856159 -6.615497 0.483588
-0.834000 -13.192755 -4.773356 -4.017113
0.417000 -13.835093 -5.234576 -4.633462
0.417000 -13.285928 -3.868921 -4.304850
-0.834000 -7.774706 -12.672063 -7.535806
-0.834000 -15.388495 -5.487708 -5.624524
0.417000 -15.616758 -6.025881 -6.412321
0.417000 -16.303272 -5.173494 -5.526497
-0.834000 -5.610820 8.947983 -5.378913
0.417000 -5.607302 8.368190 -6.151120
0.417000 -6.257566 9.611416 -5.566148
-0.834000 -11.272252 -8.329643 0.021457
0.417000 -11.843884 -8.820805 -0.599585
0.417000 -11.614488 -8.661459 0.832044
-0.834000 11.281802 4.064655 -5.060595
0.417000 10.904716 4.014621 -4.159120
0.417000 10.909957 4.941987 -5.412014
-0.834000 -7.833433 6.605913 4.644479
0.417000 -7.202437 6.640333 5.264100
0.417000 -7.346639 6.541351 3.815545
-0.834000 -0.020970 -12.738091 -4.139514
0.417000 0.874708 -12.592109 -4.503963
0.417000 -0.534795 -12.742843 -4.930764
-0.834000 -9.000100 0.335738 -3.328842
0.417000 -9.911436 -0.080672 -3.279728
0.417000 -8.415147 -0.396131 -3.377330
-0.834000 -10.263457 -1.846107 9.068421
0.417000 -9.786209 -1.949946 8.251507
0.417000 -10.196005 -0.887668 9.238395
-0.834000 -6.041005 -5.500701 -6.079902
0.417000 -5.789041 -4.626165 -6.129082
0.417000 -7.014199 -5.405073 -6.384315
-0.834000 -15.479697 -1.615397 -0.032645
0.417000 -14.618478 -2.090244 -0.338770
0.417000 -16.012631 -1.709155 -0.863116
